ncols        47
nrows        25
xllcorner    -70.651805555556
yllcorner    -33.434398148148
cellsize     0.000925925926
NODATA_value -32768
 549 549 548 548 548 548 546 549 551 548 549 552 549 549 546 545 545 541 542 542 541 540 539 539 541 542 539 539 543 552 585 616 664 710 725 733 727 725 726 721 727 727 714 689 666 665 659
 548 548 549 548 550 552 549 551 549 551 550 552 546 547 548 546 545 545 544 543 543 541 540 544 546 552 547 551 552 560 592 636 669 698 718 722 720 698 694 698 698 700 688 671 646 638 632
 553 552 552 550 552 551 551 550 552 552 554 553 551 551 551 550 547 545 546 544 549 549 561 577 575 571 574 571 578 590 627 664 686 699 690 686 676 656 655 674 678 672 650 640 629 627 629
 554 554 554 552 553 552 550 551 554 551 553 550 552 551 551 550 549 548 546 549 551 565 590 597 591 589 594 589 594 608 650 679 696 699 685 679 659 646 636 645 656 651 638 634 629 625 627
 554 555 557 555 554 549 552 555 553 554 553 554 554 553 552 550 551 553 556 557 572 594 625 632 619 605 614 611 615 648 686 705 716 704 681 668 640 623 630 626 626 623 629 621 623 626 629
 557 560 556 553 554 557 556 558 557 556 557 556 559 556 554 556 570 583 588 598 619 658 687 679 662 652 658 679 682 701 732 720 694 671 646 632 619 618 617 619 621 619 620 620 622 623 623
 557 559 556 557 555 563 573 585 562 559 557 557 558 557 558 574 598 621 630 637 656 684 716 713 704 693 708 731 736 745 731 708 680 642 621 615 614 616 617 617 616 619 620 622 623 626 621
 556 556 554 553 556 584 597 612 563 559 559 569 562 561 569 585 617 657 674 688 686 714 741 754 754 752 767 776 767 753 712 679 650 618 614 616 616 618 615 615 616 618 617 619 619 622 625
 561 559 556 558 564 597 617 614 562 563 563 565 563 563 578 599 647 676 688 706 725 747 765 780 785 793 796 807 785 757 702 669 632 615 614 615 614 617 615 617 615 616 617 621 620 618 623
 558 560 561 561 587 621 631 594 563 564 565 566 577 600 630 665 699 725 742 751 778 792 827 880 879 873 846 817 788 749 703 654 620 614 613 613 615 615 614 615 616 616 612 618 616 620 623
 559 557 561 564 585 610 608 585 566 566 565 566 575 612 644 673 707 741 764 784 802 823 856 889 876 857 828 804 783 754 691 648 624 621 614 614 612 612 612 614 618 615 620 619 618 628 629
 559 563 564 564 564 570 568 568 565 565 567 572 568 590 618 649 681 706 743 792 846 878 861 833 817 813 808 796 758 711 650 631 619 621 624 621 614 614 610 608 613 616 617 626 628 623 632
 561 563 565 563 565 564 566 565 569 567 567 570 570 573 599 622 638 683 721 775 842 842 818 794 776 779 773 768 749 686 649 625 622 628 609 607 610 611 611 615 619 617 620 617 625 626 629
 559 561 564 565 565 566 568 568 569 567 571 571 571 572 579 602 627 678 727 770 822 817 796 766 742 720 711 717 710 682 625 630 619 606 610 611 613 617 613 617 617 621 618 623 623 626 627
 562 562 563 564 567 565 569 575 570 568 569 571 573 574 584 612 649 699 742 789 829 818 788 744 704 689 667 677 673 652 637 611 600 608 608 608 615 618 618 615 616 619 620 625 620 624 625
 561 561 566 565 568 569 570 572 572 571 570 573 577 574 587 622 659 716 770 818 857 837 793 744 696 663 649 628 627 630 624 604 605 607 608 608 616 612 619 614 614 614 621 625 625 620 618
 564 563 565 567 566 568 570 573 572 572 573 573 578 577 593 630 675 738 778 813 831 799 756 713 678 638 615 605 606 605 606 603 605 604 605 607 611 614 614 623 614 625 621 621 618 617 618
 566 562 566 569 568 571 571 571 573 575 574 578 576 575 594 636 678 730 754 790 803 785 748 696 651 621 604 602 601 602 601 606 603 604 609 607 608 612 616 613 624 619 621 621 617 616 618
 565 566 565 567 566 570 571 572 573 574 576 578 576 581 605 630 666 704 727 742 750 746 720 654 616 599 606 605 600 600 596 603 605 608 606 607 621 612 614 621 615 617 616 616 618 616 619
 565 567 565 570 570 573 573 575 574 575 576 579 579 579 584 594 631 665 688 689 712 713 676 614 602 601 598 599 599 599 597 601 602 606 606 604 609 610 611 615 617 611 612 616 617 614 616
 565 570 569 570 572 573 574 573 575 575 578 579 580 580 584 584 585 605 624 627 638 618 597 592 594 596 598 599 603 593 617 612 604 601 604 606 608 607 606 609 609 605 610 617 611 613 613
 568 570 568 570 572 572 573 575 573 574 578 578 580 581 585 587 586 589 599 602 595 592 593 594 592 594 594 601 601 596 601 611 604 602 603 603 611 608 606 609 610 609 610 616 615 613 612
 566 569 569 573 572 572 574 573 577 575 578 578 581 581 583 583 585 585 591 589 593 593 594 592 589 595 594 594 595 598 605 604 602 603 601 601 603 601 604 615 610 607 608 611 611 610 610
 565 569 570 566 572 574 575 573 575 574 576 578 579 582 584 586 586 586 586 585 587 588 591 591 592 596 594 595 603 606 601 604 603 598 602 602 601 602 602 605 604 606 609 607 606 608 614
 570 573 571 571 572 575 570 576 575 576 577 577 581 583 583 583 586 586 587 586 592 590 586 599 590 592 592 598 603 596 597 599 600 598 603 603 600 598 601 603 603 607 607 606 608 610 609
