ncols        156
nrows        82
xllcorner    -70.651805555556
yllcorner    -33.434027777778
cellsize     0.000277777778
NODATA_value -32768
 549 550 550 550 548 547 547 546 545 545 546 547 547 547 548 547 546 546 547 546 546 546 547 547 548 548 548 548 548 548 547 547 548 549 547 547 550 552 551 549 548 547 547 547 546 545 545 544 544 545 545 546 546 547 546 545 543 543 543 543 542 541 541 541 542 542 541 539 538 538 538 538 538 537 537 536 537 536 536 535 535 536 537 538 538 537 537 537 536 535 534 534 535 538 541 543 544 548 552 560 569 579 589 600 615 632 649 666 672 681 695 709 716 721 726 728 728 726 724 720 712 711 717 724 729 734 738 740 738 741 740 738 740 743 743 741 738 737 734 728 725 723 718 708 696 681 679 674 669 668 672 675 679 675 668 660
 549 549 550 550 549 547 547 548 548 548 547 548 548 548 548 547 548 548 548 547 546 546 547 548 549 550 550 550 551 550 548 548 549 549 549 549 550 551 552 553 551 549 548 549 549 548 547 546 546 546 546 545 545 545 545 545 543 541 541 541 541 542 542 542 542 542 542 541 541 541 540 540 540 540 539 540 540 540 539 539 541 541 543 542 542 542 540 539 539 539 539 539 539 540 543 546 548 552 556 564 574 585 596 606 616 631 648 664 674 685 697 710 717 720 725 727 731 733 733 732 729 727 726 724 725 726 724 726 727 726 723 721 722 724 727 728 728 727 725 722 721 714 707 698 689 679 673 666 660 660 661 665 665 663 659 650
 549 549 548 548 548 546 546 548 548 548 547 547 548 548 548 549 551 551 550 547 546 547 549 551 551 550 550 550 551 550 549 549 549 549 549 550 550 552 554 554 552 549 547 548 548 547 547 547 546 546 546 545 545 545 545 545 543 542 542 542 542 542 542 541 541 542 542 542 542 541 540 539 539 539 539 540 541 540 540 542 543 544 543 543 543 543 541 540 541 542 542 541 540 541 544 545 550 555 562 570 580 589 600 613 622 635 648 659 674 683 693 705 715 716 722 728 731 732 733 733 733 732 725 720 718 717 715 717 718 717 711 713 715 716 718 718 717 716 714 712 710 705 697 688 681 675 669 660 655 652 653 656 657 656 652 642
 549 549 548 548 548 546 546 548 548 548 547 547 548 548 548 549 551 551 550 547 546 547 549 551 551 550 550 550 551 550 549 549 549 549 549 550 550 552 554 554 552 549 547 548 548 547 547 547 546 546 546 545 545 545 545 545 543 542 542 542 542 542 542 541 541 542 542 542 542 541 540 539 539 539 539 540 541 540 540 542 543 544 543 543 543 543 541 540 541 542 542 541 540 541 544 545 550 555 562 570 580 589 600 613 622 635 648 659 674 683 693 705 715 716 722 728 731 732 733 733 733 732 725 720 718 717 715 717 718 717 711 713 715 716 718 718 717 716 714 712 710 705 697 688 681 675 669 660 655 652 653 656 657 656 652 642
 549 548 548 548 548 547 547 548 549 550 549 548 549 550 550 549 551 552 552 551 550 549 549 550 551 551 550 549 549 549 550 551 551 551 550 550 550 551 552 550 548 546 548 549 547 546 547 548 548 549 548 546 546 546 545 544 544 545 545 545 544 544 544 543 543 543 543 544 543 542 541 541 541 541 540 541 542 543 544 545 546 546 547 551 552 550 549 547 546 548 550 551 550 549 552 552 555 560 567 576 583 592 604 618 636 650 660 669 677 685 692 698 707 716 718 719 720 722 724 725 723 720 712 706 698 692 691 694 696 698 696 698 699 698 698 699 700 700 696 691 690 688 684 678 671 663 654 646 636 637 637 638 637 634 632 632
 549 548 548 548 548 547 547 548 549 550 549 548 549 550 550 549 551 552 552 551 550 549 549 550 551 551 550 549 549 549 550 551 551 551 550 550 550 551 552 550 548 546 548 549 547 546 547 548 548 549 548 546 546 546 545 544 544 545 545 545 544 544 544 543 543 543 543 544 543 542 541 541 541 541 540 541 542 543 544 545 546 546 547 551 552 550 549 547 546 548 550 551 550 549 552 552 555 560 567 576 583 592 604 618 636 650 660 669 677 685 692 698 707 716 718 719 720 722 724 725 723 720 712 706 698 692 691 694 696 698 696 698 699 698 698 699 700 700 696 691 690 688 684 678 671 663 654 646 636 637 637 638 637 634 632 632
 550 550 549 548 548 547 548 549 551 551 550 549 550 551 550 550 551 552 553 552 552 551 550 550 551 552 551 550 548 549 550 552 552 552 551 550 550 551 551 550 547 545 548 549 548 547 547 548 549 550 550 548 547 547 546 545 545 545 546 545 544 544 544 544 543 544 544 544 544 543 543 543 543 542 541 542 544 546 547 549 551 551 553 554 556 553 550 549 549 551 553 554 553 555 559 562 566 572 578 583 589 599 612 625 641 653 662 675 682 689 699 702 706 713 713 709 708 711 713 716 712 709 702 694 685 680 680 682 684 686 689 692 692 688 689 690 689 690 685 682 680 677 674 669 664 658 650 640 631 629 631 631 631 631 631 630
 553 553 551 550 550 551 551 551 551 551 550 551 552 554 552 549 549 550 551 551 551 551 549 550 550 552 552 552 552 551 551 552 553 554 553 552 552 552 553 553 551 550 551 551 551 549 549 549 550 551 551 550 549 549 548 546 547 547 546 545 545 545 545 544 543 543 545 547 547 546 546 546 547 548 550 553 556 561 564 565 564 564 565 566 564 563 565 566 565 564 565 563 563 566 571 576 581 586 591 597 605 616 630 644 655 665 674 682 686 690 698 703 707 707 700 696 694 694 693 691 689 686 681 671 664 659 661 662 663 668 675 680 680 679 680 680 677 677 672 667 664 661 657 652 648 644 636 630 626 625 625 626 630 631 630 629
 554 553 551 551 552 553 553 552 552 552 551 550 552 553 552 550 550 551 551 550 550 551 550 549 550 550 552 552 552 551 551 552 553 554 554 553 552 552 553 554 552 551 551 552 551 550 550 551 551 551 551 550 549 548 547 547 547 546 545 545 545 546 546 545 544 544 546 548 549 549 548 549 553 556 561 565 569 572 577 576 575 575 573 570 571 573 574 574 573 571 571 571 572 574 578 583 587 590 595 601 614 627 639 651 664 673 681 686 688 692 695 699 700 698 690 684 684 686 687 682 678 676 668 663 656 654 653 655 655 657 667 674 677 675 678 676 674 672 664 658 654 650 649 645 640 635 631 629 627 627 626 627 629 630 629 627
 553 553 553 553 553 554 553 553 553 552 551 551 552 552 552 552 552 552 551 550 549 550 550 549 549 550 552 552 552 551 551 552 553 553 554 553 552 551 551 551 551 551 551 551 551 550 551 552 552 551 551 550 549 548 547 547 547 547 546 546 546 546 547 547 546 546 547 549 550 551 553 557 561 568 576 583 585 585 586 586 586 585 583 579 581 583 584 583 584 583 582 582 580 581 584 589 593 596 601 610 625 639 651 663 674 682 688 692 694 695 697 696 692 689 683 679 679 683 682 677 672 667 661 655 652 648 645 644 645 646 653 661 665 666 669 668 665 662 658 650 647 646 645 641 636 632 631 628 628 628 628 626 626 627 626 626
 552 554 554 554 554 555 555 554 554 554 552 552 552 553 553 553 553 552 552 551 549 550 550 551 551 552 553 554 554 553 551 551 552 552 553 552 551 551 550 551 551 552 551 551 551 550 551 551 551 550 550 550 550 549 549 549 549 547 548 547 546 546 547 549 549 549 549 551 551 554 559 565 571 579 590 597 598 597 597 597 593 591 589 588 589 589 590 594 594 591 590 589 588 589 594 598 602 608 613 626 637 650 662 671 679 685 691 696 697 699 701 699 694 689 685 677 676 679 676 671 665 659 651 648 646 641 637 636 636 638 641 645 649 654 656 652 649 651 647 642 639 638 639 636 634 634 631 629 627 627 626 625 624 625 627 627
 552 554 554 554 554 555 555 554 554 554 552 552 552 553 553 553 553 552 552 551 549 550 550 551 551 552 553 554 554 553 551 551 552 552 553 552 551 551 550 551 551 552 551 551 551 550 551 551 551 550 550 550 550 549 549 549 549 547 548 547 546 546 547 549 549 549 549 551 551 554 559 565 571 579 590 597 598 597 597 597 593 591 589 588 589 589 590 594 594 591 590 589 588 589 594 598 602 608 613 626 637 650 662 671 679 685 691 696 697 699 701 699 694 689 685 677 676 679 676 671 665 659 651 648 646 641 637 636 636 638 641 645 649 654 656 652 649 651 647 642 639 638 639 636 634 634 631 629 627 627 626 625 624 625 627 627
 553 554 555 556 556 557 559 559 559 557 555 554 555 554 554 552 551 550 550 551 551 550 551 554 556 556 554 553 553 554 553 553 553 552 552 552 552 552 552 553 553 553 553 552 552 552 552 552 552 551 550 550 549 550 552 553 552 551 551 551 552 552 553 553 553 555 556 559 565 571 577 584 593 605 615 620 624 623 621 618 613 607 600 598 598 598 602 606 610 608 608 602 598 600 606 612 622 634 642 650 662 676 686 691 693 695 699 707 711 707 705 704 700 692 684 678 676 672 662 653 649 645 640 632 628 629 630 630 630 628 629 630 630 632 633 633 630 627 628 628 628 630 630 629 628 626 628 626 625 625 624 625 627 628 630 630
 553 554 554 554 555 557 558 558 557 555 555 555 554 554 554 553 552 550 549 551 552 552 552 554 555 554 553 552 553 553 554 554 553 552 553 553 553 553 554 554 554 554 553 553 553 554 553 553 552 551 550 550 550 550 551 553 553 554 553 553 553 556 555 556 557 560 563 567 572 577 586 594 608 616 625 630 636 637 632 627 625 619 610 605 605 606 609 614 618 621 618 611 608 610 615 626 638 648 656 661 674 686 696 701 705 707 713 716 712 707 706 704 699 691 681 677 674 668 660 651 646 640 634 627 623 623 627 630 629 629 627 626 625 625 626 625 621 623 626 627 629 629 627 621 621 620 623 623 623 624 625 626 627 628 629 631
 553 554 554 554 555 557 558 558 557 555 555 555 554 554 554 553 552 550 549 551 552 552 552 554 555 554 553 552 553 553 554 554 553 552 553 553 553 553 554 554 554 554 553 553 553 554 553 553 552 551 550 550 550 550 551 553 553 554 553 553 553 556 555 556 557 560 563 567 572 577 586 594 608 616 625 630 636 637 632 627 625 619 610 605 605 606 609 614 618 621 618 611 608 610 615 626 638 648 656 661 674 686 696 701 705 707 713 716 712 707 706 704 699 691 681 677 674 668 660 651 646 640 634 627 623 623 627 630 629 629 627 626 625 625 626 625 621 623 626 627 629 629 627 621 621 620 623 623 623 624 625 626 627 628 629 631
 552 552 552 552 554 556 556 555 555 554 554 554 555 556 558 556 554 553 551 551 552 552 552 553 553 553 554 555 555 554 554 554 554 555 556 555 555 555 555 556 556 556 555 556 557 558 557 554 551 551 552 553 553 555 556 557 558 559 560 560 560 561 561 562 564 572 581 585 590 600 613 627 640 650 657 655 653 651 651 645 638 636 632 626 624 620 620 623 631 636 635 634 637 643 652 658 666 675 683 691 697 704 709 712 715 718 720 717 709 701 697 693 688 683 675 669 661 656 648 642 638 631 625 623 621 620 621 622 621 620 620 620 620 619 618 618 619 621 621 621 621 622 622 621 621 620 619 621 622 624 626 628 627 626 627 630
 552 552 553 555 556 557 556 555 556 555 554 553 553 556 556 556 555 554 554 554 552 551 551 551 552 553 554 555 556 556 556 556 556 557 557 557 556 556 556 556 556 556 556 556 557 557 556 554 552 552 553 555 555 556 558 560 564 566 565 565 565 568 567 568 573 582 590 595 602 612 622 633 645 656 663 665 663 663 658 652 648 643 639 635 634 631 629 633 640 646 649 648 652 656 664 670 677 683 691 700 706 713 716 713 714 716 716 711 703 695 691 687 680 673 667 661 652 647 644 640 631 624 619 620 621 620 620 620 619 619 620 620 620 619 619 618 618 619 620 620 620 622 622 622 621 620 619 619 621 626 629 629 630 629 628 628
 552 552 553 555 556 557 556 555 556 555 554 553 553 556 556 556 555 554 554 554 552 551 551 551 552 553 554 555 556 556 556 556 556 557 557 557 556 556 556 556 556 556 556 556 557 557 556 554 552 552 553 555 555 556 558 560 564 566 565 565 565 568 567 568 573 582 590 595 602 612 622 633 645 656 663 665 663 663 658 652 648 643 639 635 634 631 629 633 640 646 649 648 652 656 664 670 677 683 691 700 706 713 716 713 714 716 716 711 703 695 691 687 680 673 667 661 652 647 644 640 631 624 619 620 621 620 620 620 619 619 620 620 620 619 619 618 618 619 620 620 620 622 622 622 621 620 619 619 621 626 629 629 630 629 628 628
 556 557 558 559 560 560 558 556 556 557 555 553 553 553 554 554 554 555 557 557 556 556 555 557 558 559 558 557 557 556 556 556 556 556 557 557 557 556 556 558 559 559 558 556 556 556 555 555 554 554 554 556 562 567 570 572 576 579 583 584 584 588 593 596 598 600 606 612 619 629 643 658 670 682 687 688 685 684 679 673 667 662 655 654 652 649 651 658 662 663 671 679 680 679 682 686 692 701 709 717 727 732 729 725 720 714 705 694 690 687 681 671 663 653 646 642 639 632 624 620 619 619 618 617 618 618 618 617 617 617 617 619 621 620 621 620 619 619 619 619 619 620 621 621 620 620 621 622 622 623 624 623 624 623 623 623
 556 557 558 559 560 560 558 556 556 557 555 553 553 553 554 554 554 555 557 557 556 556 555 557 558 559 558 557 557 556 556 556 556 556 557 557 557 556 556 558 559 559 558 556 556 556 555 555 554 554 554 556 562 567 570 572 576 579 583 584 584 588 593 596 598 600 606 612 619 629 643 658 670 682 687 688 685 684 679 673 667 662 655 654 652 649 651 658 662 663 671 679 680 679 682 686 692 701 709 717 727 732 729 725 720 714 705 694 690 687 681 671 663 653 646 642 639 632 624 620 619 619 618 617 618 618 618 617 617 617 617 619 621 620 621 620 619 619 619 619 619 620 621 621 620 620 621 622 622 623 624 623 624 623 623 623
 558 558 559 560 560 559 557 555 555 556 555 556 556 556 555 553 552 553 559 563 564 564 570 577 581 579 576 567 560 557 557 558 558 558 558 558 559 558 557 557 559 558 557 556 556 557 557 557 557 557 563 571 577 586 591 595 598 603 610 610 612 615 619 620 622 625 631 639 644 651 666 679 693 702 707 708 703 697 694 695 694 688 682 680 682 680 681 688 693 699 711 717 713 714 720 732 732 733 736 739 739 737 729 721 714 705 700 690 680 671 661 653 645 637 629 624 619 616 615 615 615 615 616 616 616 616 616 616 616 616 615 616 617 618 618 618 618 620 621 620 619 619 620 620 620 621 622 623 623 624 626 626 623 622 621 621
 558 557 557 559 559 558 556 556 556 556 556 557 557 557 555 555 556 559 563 566 568 573 577 581 585 586 579 568 562 559 558 559 559 559 557 558 559 558 557 556 558 558 559 558 557 557 558 558 558 559 566 574 581 589 598 600 604 613 621 624 627 630 633 635 637 640 648 652 656 663 672 684 698 709 716 716 713 710 713 713 710 704 695 694 693 693 700 708 712 717 725 731 730 730 736 738 741 745 745 741 737 731 725 716 708 700 692 680 666 656 648 642 633 626 621 617 615 615 615 615 614 614 614 615 616 616 616 617 617 617 617 617 617 617 616 615 617 619 620 619 619 620 620 621 622 622 623 623 624 624 626 626 624 622 621 621
 558 557 557 559 559 558 556 556 556 556 556 557 557 557 555 555 556 559 563 566 568 573 577 581 585 586 579 568 562 559 558 559 559 559 557 558 559 558 557 556 558 558 559 558 557 557 558 558 558 559 566 574 581 589 598 600 604 613 621 624 627 630 633 635 637 640 648 652 656 663 672 684 698 709 716 716 713 710 713 713 710 704 695 694 693 693 700 708 712 717 725 731 730 730 736 738 741 745 745 741 737 731 725 716 708 700 692 680 666 656 648 642 633 626 621 617 615 615 615 615 614 614 614 615 616 616 616 617 617 617 617 617 617 617 616 615 617 619 620 619 619 620 620 621 622 622 623 623 624 624 626 626 624 622 621 621
 559 557 554 555 558 558 557 557 556 555 555 555 554 554 555 559 565 572 580 585 590 599 603 606 601 594 578 569 561 558 557 557 558 559 559 559 561 564 564 563 562 561 563 562 558 558 559 560 563 566 569 577 587 599 610 619 629 639 650 655 659 662 661 663 667 670 672 673 677 686 693 701 716 727 735 743 743 742 738 740 743 747 748 746 745 733 734 741 748 756 757 762 763 762 758 755 753 752 749 740 731 719 710 699 688 680 670 660 650 640 631 624 619 615 614 615 615 615 615 615 615 616 616 617 617 617 616 615 615 615 615 616 616 616 617 617 617 617 617 617 617 619 620 620 620 620 620 620 618 619 621 625 627 627 626 624
 559 556 553 554 556 557 556 555 554 554 554 553 552 553 556 560 569 578 584 587 593 597 606 613 612 593 579 567 563 560 559 559 559 559 559 562 568 569 569 567 563 562 563 562 561 560 560 563 569 573 578 585 595 606 617 628 638 650 657 664 671 674 677 682 688 691 691 684 686 698 705 714 725 733 741 750 755 756 754 750 752 754 754 753 752 756 761 767 773 774 776 776 777 776 767 762 758 753 747 734 722 712 705 690 679 671 662 650 641 630 622 618 615 614 614 614 615 616 616 616 616 616 617 617 618 617 615 615 614 614 614 615 616 615 616 617 617 618 617 617 616 617 618 619 619 620 620 619 618 617 618 622 626 627 625 625
 559 556 553 554 556 557 556 555 554 554 554 553 552 553 556 560 569 578 584 587 593 597 606 613 612 593 579 567 563 560 559 559 559 559 559 562 568 569 569 567 563 562 563 562 561 560 560 563 569 573 578 585 595 606 617 628 638 650 657 664 671 674 677 682 688 691 691 684 686 698 705 714 725 733 741 750 755 756 754 750 752 754 754 753 752 756 761 767 773 774 776 776 777 776 767 762 758 753 747 734 722 712 705 690 679 671 662 650 641 630 622 618 615 614 614 614 615 616 616 616 616 616 617 617 618 617 615 615 614 614 614 615 616 615 616 617 617 618 617 617 616 617 618 619 619 620 620 619 618 617 618 622 626 627 625 625
 560 561 561 561 559 558 558 557 556 556 558 558 558 560 564 571 578 585 597 603 610 617 618 619 614 596 579 568 562 563 563 563 564 564 563 562 564 566 565 563 563 563 563 561 563 566 570 573 578 586 592 599 609 626 647 663 669 674 676 679 683 688 693 699 706 713 721 722 725 730 739 747 754 758 765 768 778 784 780 778 780 785 786 790 793 794 793 796 801 808 808 807 800 791 785 779 772 757 745 730 715 702 685 672 669 660 646 632 623 618 614 615 615 614 614 614 615 615 616 616 615 614 614 616 617 617 616 615 615 617 618 617 616 615 615 615 616 616 617 617 617 617 618 619 621 623 623 620 616 614 612 618 622 622 623 625
 560 561 561 561 559 558 558 557 556 556 558 558 558 560 564 571 578 585 597 603 610 617 618 619 614 596 579 568 562 563 563 563 564 564 563 562 564 566 565 563 563 563 563 561 563 566 570 573 578 586 592 599 609 626 647 663 669 674 676 679 683 688 693 699 706 713 721 722 725 730 739 747 754 758 765 768 778 784 780 778 780 785 786 790 793 794 793 796 801 808 808 807 800 791 785 779 772 757 745 730 715 702 685 672 669 660 646 632 623 618 614 615 615 614 614 614 615 615 616 616 615 614 614 616 617 617 616 615 615 617 618 617 616 615 615 615 616 616 617 617 617 617 618 619 621 623 623 620 616 614 612 618 622 622 623 625
 559 560 561 560 560 559 559 559 560 559 559 560 561 563 572 581 586 597 617 632 636 635 632 628 613 596 578 566 562 561 561 561 562 563 565 564 563 563 564 563 563 564 566 570 572 578 581 588 593 600 611 620 636 651 665 683 691 693 690 690 698 707 719 729 733 736 742 749 754 757 759 764 773 784 796 802 810 815 818 822 828 835 841 831 831 833 833 831 832 832 828 820 814 807 799 789 772 760 746 734 722 706 687 666 657 643 632 624 619 616 615 615 614 613 613 613 614 615 615 615 615 615 615 616 616 616 616 615 615 613 614 614 614 613 614 615 615 615 616 617 617 617 616 617 617 617 614 611 610 613 617 622 623 624 624 625
 558 559 559 559 560 560 560 561 561 562 561 563 562 567 578 589 597 606 624 636 640 641 633 622 601 588 575 565 563 562 562 563 563 563 564 564 564 564 565 564 563 563 567 572 581 585 593 600 606 613 623 637 652 667 683 699 702 702 701 701 706 718 728 735 739 745 750 757 760 763 769 777 782 788 798 813 828 840 846 850 856 858 864 859 852 854 854 847 844 839 833 822 812 806 801 793 770 756 745 732 717 708 693 673 651 640 633 624 618 616 615 615 614 613 613 613 613 614 614 615 615 616 617 616 616 615 615 615 613 612 612 613 613 614 615 614 614 614 615 616 616 615 615 615 616 613 611 612 615 619 623 623 623 622 623 625
 558 559 559 559 560 560 560 561 561 562 561 563 562 567 578 589 597 606 624 636 640 641 633 622 601 588 575 565 563 562 562 563 563 563 564 564 564 564 565 564 563 563 567 572 581 585 593 600 606 613 623 637 652 667 683 699 702 702 701 701 706 718 728 735 739 745 750 757 760 763 769 777 782 788 798 813 828 840 846 850 856 858 864 859 852 854 854 847 844 839 833 822 812 806 801 793 770 756 745 732 717 708 693 673 651 640 633 624 618 616 615 615 614 613 613 613 613 614 614 615 615 616 617 616 616 615 615 615 613 612 612 613 613 614 615 614 614 614 615 616 616 615 615 615 616 613 611 612 615 619 623 623 623 622 623 625
 560 558 558 558 560 561 562 562 561 560 560 561 564 573 587 601 607 616 621 627 631 631 623 609 594 582 571 565 563 564 564 564 565 565 565 565 564 565 566 568 569 577 582 590 600 610 622 629 630 640 653 665 679 688 699 715 721 721 725 727 733 742 747 749 751 755 765 774 778 783 786 792 801 809 827 847 863 874 880 881 881 879 877 877 873 864 854 846 838 834 828 817 806 797 788 780 764 749 737 727 721 703 684 666 654 642 629 620 617 618 616 614 614 614 613 612 612 613 614 615 615 615 615 614 615 615 614 614 614 615 616 615 615 616 616 616 616 616 616 614 612 612 612 615 618 618 615 616 618 620 620 620 622 623 623 624
 562 559 557 557 558 559 562 561 561 560 561 561 564 572 584 597 607 613 616 618 620 619 615 604 590 578 569 564 563 564 564 564 564 565 565 565 564 564 566 568 570 578 585 596 607 618 631 639 641 652 666 679 687 692 704 720 728 732 737 742 746 750 757 759 765 771 780 785 789 796 801 810 819 829 846 864 877 887 886 885 883 879 875 873 868 856 845 836 829 827 822 811 801 792 784 771 762 754 741 730 720 702 679 661 650 639 626 618 620 622 621 618 615 614 614 613 613 614 614 614 614 613 613 612 612 613 613 613 613 614 614 614 616 618 619 618 617 617 616 615 615 616 617 618 619 617 616 617 619 621 623 624 624 627 625 624
 562 559 557 557 558 559 562 561 561 560 561 561 564 572 584 597 607 613 616 618 620 619 615 604 590 578 569 564 563 564 564 564 564 565 565 565 564 564 566 568 570 578 585 596 607 618 631 639 641 652 666 679 687 692 704 720 728 732 737 742 746 750 757 759 765 771 780 785 789 796 801 810 819 829 846 864 877 887 886 885 883 879 875 873 868 856 845 836 829 827 822 811 801 792 784 771 762 754 741 730 720 702 679 661 650 639 626 618 620 622 621 618 615 614 614 613 613 614 614 614 614 613 613 612 612 613 613 613 613 614 614 614 616 618 619 618 617 617 616 615 615 616 617 618 619 617 616 617 619 621 623 624 624 627 625 624
 562 559 557 557 557 559 560 561 561 561 562 564 570 576 585 595 605 608 610 610 609 608 605 596 585 574 567 565 566 566 567 566 565 565 565 565 565 565 566 569 571 575 586 599 612 621 629 636 644 653 664 673 684 696 707 720 728 733 741 751 755 764 772 779 784 788 794 798 802 804 812 823 834 842 856 868 884 889 889 886 879 876 870 865 857 849 839 828 820 820 816 804 794 792 783 764 759 754 751 735 709 691 671 657 648 638 627 624 623 626 624 621 616 615 614 614 614 614 614 613 612 612 612 612 612 612 612 612 613 613 614 614 616 618 618 616 616 615 615 616 619 620 619 618 619 618 618 618 620 622 624 628 631 632 629 625
 560 559 560 560 559 558 558 559 561 564 566 566 572 575 580 584 585 588 590 593 592 587 581 575 571 567 564 566 566 565 565 565 565 566 567 569 571 572 572 570 569 570 575 584 596 607 616 624 633 643 648 658 672 685 698 705 710 718 729 738 748 762 773 786 800 808 813 818 829 836 839 849 866 871 866 865 867 867 861 855 851 850 845 844 840 835 828 820 811 810 807 797 790 790 783 767 751 736 731 717 683 663 652 649 643 631 624 619 618 621 622 620 617 616 616 616 615 613 614 614 613 613 613 613 613 613 612 611 611 611 612 611 611 610 612 615 615 614 614 615 617 619 621 621 621 621 621 621 621 623 623 626 631 632 629 627
 559 559 560 561 562 560 561 561 563 565 566 564 565 567 571 573 574 575 579 581 580 575 571 568 568 566 565 565 565 564 564 564 565 567 568 569 570 573 574 570 568 570 573 579 589 600 609 618 626 634 644 655 671 681 690 694 698 707 717 729 738 755 769 783 797 813 824 834 846 852 863 866 880 878 867 860 854 848 847 842 837 831 828 829 831 826 820 812 805 803 802 797 791 788 770 752 738 724 711 699 676 650 645 643 640 630 621 618 618 621 622 620 619 619 619 619 617 618 619 619 618 615 614 614 614 614 613 612 610 610 609 608 608 609 611 614 614 613 614 615 616 619 621 623 623 626 629 626 623 623 624 624 630 632 630 628
 559 559 559 562 563 564 563 564 564 565 565 564 562 563 564 567 567 568 570 572 571 568 567 568 568 567 566 566 565 564 564 565 566 567 567 567 568 570 572 570 568 568 571 579 590 597 603 610 618 627 637 649 662 673 681 684 688 697 706 715 726 743 763 779 792 807 824 836 846 858 865 878 883 874 861 844 838 834 833 829 823 817 816 815 813 812 810 808 804 801 798 796 788 776 758 738 722 711 699 686 670 650 641 637 631 624 619 619 621 622 622 621 622 622 624 625 624 621 621 619 617 614 613 614 614 614 612 610 608 607 607 608 610 611 613 614 615 616 615 614 616 617 620 623 626 630 631 628 625 625 625 623 628 634 632 631
 559 559 559 562 563 564 563 564 564 565 565 564 562 563 564 567 567 568 570 572 571 568 567 568 568 567 566 566 565 564 564 565 566 567 567 567 568 570 572 570 568 568 571 579 590 597 603 610 618 627 637 649 662 673 681 684 688 697 706 715 726 743 763 779 792 807 824 836 846 858 865 878 883 874 861 844 838 834 833 829 823 817 816 815 813 812 810 808 804 801 798 796 788 776 758 738 722 711 699 686 670 650 641 637 631 624 619 619 621 622 622 621 622 622 624 625 624 621 621 619 617 614 613 614 614 614 612 610 608 607 607 608 610 611 613 614 615 616 615 614 616 617 620 623 626 630 631 628 625 625 625 623 628 634 632 631
 561 561 561 562 563 565 564 565 565 564 563 563 564 565 566 567 566 565 566 567 566 567 567 567 567 566 567 567 567 567 567 567 567 567 567 568 568 568 570 570 569 566 564 568 575 583 588 597 606 618 624 631 640 647 651 659 670 675 687 701 713 725 747 766 783 796 812 827 843 853 854 853 849 837 827 824 821 813 806 802 800 793 789 789 792 790 789 789 793 795 792 782 774 769 763 736 703 687 682 672 663 659 640 634 629 621 619 622 626 630 627 624 623 620 618 617 616 611 609 609 610 609 608 607 610 612 611 609 609 610 613 615 618 620 622 622 621 620 620 618 619 618 617 617 619 623 625 624 622 620 623 626 630 632 633 629
 560 561 561 561 563 563 564 564 565 564 563 563 563 563 565 566 565 564 564 564 565 566 566 566 565 565 568 568 569 568 567 567 567 568 567 567 568 568 570 571 571 570 569 569 573 578 583 589 599 606 614 622 629 634 638 647 656 668 683 697 708 721 739 759 775 792 809 825 842 848 848 842 837 828 818 815 813 803 794 790 783 776 772 775 779 778 775 773 777 780 777 768 767 762 749 727 707 686 681 667 659 649 640 630 625 623 620 622 632 636 636 628 621 614 609 610 610 607 605 607 610 610 609 608 611 614 612 611 612 614 615 615 617 618 619 620 619 617 618 620 620 620 617 616 617 620 623 625 624 623 623 626 629 632 629 625
 560 561 561 561 563 563 564 564 565 564 563 563 563 563 565 566 565 564 564 564 565 566 566 566 565 565 568 568 569 568 567 567 567 568 567 567 568 568 570 571 571 570 569 569 573 578 583 589 599 606 614 622 629 634 638 647 656 668 683 697 708 721 739 759 775 792 809 825 842 848 848 842 837 828 818 815 813 803 794 790 783 776 772 775 779 778 775 773 777 780 777 768 767 762 749 727 707 686 681 667 659 649 640 630 625 623 620 622 632 636 636 628 621 614 609 610 610 607 605 607 610 610 609 608 611 614 612 611 612 614 615 615 617 618 619 620 619 617 618 620 620 620 617 616 617 620 623 625 624 623 623 626 629 632 629 625
 557 557 558 560 563 564 564 564 563 564 565 565 564 564 564 565 566 565 566 565 564 563 564 565 566 566 566 566 566 566 566 566 567 567 567 567 567 568 569 570 571 571 570 569 572 577 581 582 582 589 597 603 613 620 628 638 647 660 676 690 705 721 737 755 772 791 810 824 832 833 830 827 821 815 806 800 795 789 786 781 766 755 752 750 743 741 742 743 746 750 751 746 742 733 725 723 714 695 680 653 639 638 633 632 629 631 629 623 622 625 623 614 610 607 607 607 610 611 608 607 607 611 612 612 612 613 615 614 615 615 616 617 617 618 618 618 619 618 617 618 618 618 618 618 619 618 619 620 620 620 621 623 625 628 630 634
 559 558 559 561 563 564 564 564 564 564 564 565 565 565 565 565 565 565 566 566 565 565 566 566 567 567 567 566 566 567 566 566 566 567 568 568 568 568 569 569 569 570 571 570 572 574 579 581 580 586 593 601 610 620 626 636 651 662 675 690 707 724 739 755 770 789 806 819 827 827 825 821 815 808 801 797 792 784 779 775 761 752 741 734 730 729 728 729 729 734 732 731 727 724 721 718 715 692 674 637 633 632 630 630 638 639 636 627 620 618 613 607 607 609 608 610 611 611 611 610 609 612 614 614 613 614 614 613 613 614 616 618 618 619 619 620 620 620 619 618 618 619 619 621 621 620 620 621 621 621 622 625 625 625 626 630
 560 559 560 561 561 562 562 563 564 564 565 565 565 565 565 565 564 564 566 567 568 568 568 567 568 571 571 570 569 569 567 567 569 570 571 570 570 570 571 571 571 571 571 571 572 574 577 579 579 585 594 602 613 619 627 641 658 669 678 693 710 727 744 758 770 784 801 816 822 824 821 817 810 801 796 795 787 775 766 762 758 742 723 722 720 715 713 711 713 715 717 717 714 711 710 708 695 682 662 636 630 625 619 615 630 637 625 619 610 612 608 606 608 611 610 609 610 611 613 612 611 613 617 618 617 616 615 613 613 614 617 617 617 617 617 618 620 621 619 618 617 618 621 623 623 621 621 623 624 623 625 626 626 627 627 630
 560 560 560 561 561 562 562 563 565 565 566 566 566 565 566 567 566 565 566 568 569 569 569 569 572 576 578 576 572 570 569 568 570 571 571 571 571 571 571 573 573 574 574 573 573 573 575 578 579 587 598 606 612 622 636 650 662 672 684 700 716 729 749 764 774 784 804 818 825 824 819 813 806 798 794 791 780 767 756 751 740 729 714 715 711 702 697 695 698 703 704 704 701 696 696 694 681 669 662 642 637 627 618 612 613 616 608 605 603 602 606 608 611 611 610 609 609 611 613 614 612 613 618 620 619 619 616 614 613 614 617 617 614 614 616 618 620 619 619 617 617 618 621 624 623 621 621 622 625 627 625 626 627 630 630 627
 560 560 560 561 561 562 562 563 565 565 566 566 566 565 566 567 566 565 566 568 569 569 569 569 572 576 578 576 572 570 569 568 570 571 571 571 571 571 571 573 573 574 574 573 573 573 575 578 579 587 598 606 612 622 636 650 662 672 684 700 716 729 749 764 774 784 804 818 825 824 819 813 806 798 794 791 780 767 756 751 740 729 714 715 711 702 697 695 698 703 704 704 701 696 696 694 681 669 662 642 637 627 618 612 613 616 608 605 603 602 606 608 611 611 610 609 609 611 613 614 612 613 618 620 619 619 616 614 613 614 617 617 614 614 616 618 620 619 619 617 617 618 621 624 623 621 621 622 625 627 625 626 627 630 630 627
 562 562 562 562 562 563 563 562 563 563 564 564 565 566 567 568 567 566 565 567 568 569 569 572 575 577 576 574 570 569 568 568 569 569 569 570 570 570 571 572 572 573 573 574 574 574 574 578 584 591 602 612 619 632 649 662 673 687 699 713 728 742 756 775 789 798 807 822 829 835 827 818 810 801 788 780 771 760 744 728 711 704 701 697 689 675 669 667 668 675 676 677 676 673 673 672 666 652 646 642 641 637 622 614 611 605 601 600 599 599 604 608 608 607 608 608 608 608 611 613 615 615 616 619 618 618 618 618 616 615 619 615 612 613 616 619 619 619 618 618 619 620 620 623 625 620 619 620 623 624 625 624 624 624 625 626
 563 563 561 561 561 562 562 562 563 564 564 564 565 567 568 568 567 567 567 568 569 569 570 572 575 576 576 573 570 569 568 568 569 569 570 570 571 571 572 573 572 572 574 574 574 575 575 579 587 595 605 615 625 638 654 669 680 694 706 722 740 755 770 786 797 807 821 831 838 839 834 827 823 814 789 779 771 761 742 725 714 704 697 688 677 665 657 654 657 658 658 659 660 657 655 657 655 645 641 638 636 633 620 610 607 603 600 602 601 603 605 607 607 607 607 607 607 607 609 613 615 616 618 618 618 616 617 617 615 618 621 621 617 616 617 615 615 615 617 617 617 618 620 628 630 627 624 624 626 628 626 625 623 621 621 624
 563 563 561 561 561 562 562 562 563 564 564 564 565 567 568 568 567 567 567 568 569 569 570 572 575 576 576 573 570 569 568 568 569 569 570 570 571 571 572 573 572 572 574 574 574 575 575 579 587 595 605 615 625 638 654 669 680 694 706 722 740 755 770 786 797 807 821 831 838 839 834 827 823 814 789 779 771 761 742 725 714 704 697 688 677 665 657 654 657 658 658 659 660 657 655 657 655 645 641 638 636 633 620 610 607 603 600 602 601 603 605 607 607 607 607 607 607 607 609 613 615 616 618 618 618 616 617 617 615 618 621 621 617 616 617 615 615 615 617 617 617 618 620 628 630 627 624 624 626 628 626 625 623 621 621 624
 562 561 560 561 561 561 562 564 566 567 566 565 566 568 568 568 569 569 569 569 569 570 572 572 572 572 572 572 572 571 571 571 571 571 570 570 572 572 573 573 576 577 576 574 574 574 574 577 587 598 609 622 636 649 659 671 684 697 716 743 759 770 785 802 818 836 852 861 857 850 840 837 831 826 793 769 762 756 744 731 712 696 686 670 663 654 653 649 642 635 632 628 625 625 627 626 625 630 631 630 628 624 616 610 604 602 603 605 606 607 607 607 607 607 608 607 608 608 609 610 613 616 617 615 612 613 617 619 620 619 617 614 613 614 614 613 614 614 613 615 619 621 622 624 625 625 625 625 624 623 620 620 620 619 618 619
 562 561 560 561 561 561 562 563 566 568 567 566 566 567 567 568 568 569 569 570 570 570 572 573 572 571 571 571 571 571 571 571 572 572 572 572 573 573 574 576 577 584 581 578 575 574 576 579 588 599 611 624 640 651 661 670 691 710 728 749 766 782 795 813 828 842 854 858 857 848 836 830 819 812 784 770 756 748 736 718 701 694 683 673 660 651 647 641 630 625 624 620 615 612 612 611 613 615 620 621 622 618 612 608 607 605 605 605 606 607 608 607 606 606 606 607 607 608 609 611 614 615 613 611 611 613 614 617 617 619 618 617 616 618 621 617 617 617 616 618 622 626 624 622 623 623 623 623 621 619 619 618 618 619 619 621
 562 561 560 561 561 561 562 563 566 568 567 566 566 567 567 568 568 569 569 570 570 570 572 573 572 571 571 571 571 571 571 571 572 572 572 572 573 573 574 576 577 584 581 578 575 574 576 579 588 599 611 624 640 651 661 670 691 710 728 749 766 782 795 813 828 842 854 858 857 848 836 830 819 812 784 770 756 748 736 718 701 694 683 673 660 651 647 641 630 625 624 620 615 612 612 611 613 615 620 621 622 618 612 608 607 605 605 605 606 607 608 607 606 606 606 607 607 608 609 611 614 615 613 611 611 613 614 617 617 619 618 617 616 618 621 617 617 617 616 618 622 626 624 622 623 623 623 623 621 619 619 618 618 619 619 621
 563 563 562 563 564 564 564 563 564 566 567 568 568 568 567 566 567 568 568 569 570 570 570 572 572 572 571 571 571 572 572 572 572 573 573 572 572 573 574 575 577 579 580 578 573 574 577 583 593 601 611 625 643 657 668 687 707 723 741 758 773 785 795 808 825 838 841 844 843 832 810 803 792 778 767 760 750 738 718 700 688 688 675 659 647 638 630 625 617 610 608 608 606 606 608 608 607 605 604 605 607 610 607 605 604 607 607 607 607 607 607 605 604 605 605 606 606 607 607 609 613 614 611 611 613 613 613 613 616 619 623 623 618 610 611 620 626 627 623 621 623 622 619 620 621 622 621 619 618 618 618 617 617 619 620 621
 563 564 564 564 563 564 564 564 565 566 567 567 568 567 566 568 569 569 568 569 570 570 571 573 573 573 573 572 572 572 573 572 573 573 573 573 571 572 573 574 576 578 578 577 577 576 579 584 593 603 613 630 646 659 675 693 712 725 738 749 764 778 790 803 813 826 829 833 831 821 808 799 795 769 756 754 748 731 713 696 687 678 658 644 638 632 622 615 610 606 606 605 603 604 606 607 606 605 602 603 606 606 605 601 603 605 606 605 605 605 605 604 604 604 605 606 606 607 607 608 609 611 611 613 614 613 612 614 619 622 623 623 622 621 614 616 623 625 622 619 620 621 620 619 621 621 620 618 617 616 616 617 619 618 618 617
 564 565 565 563 562 563 565 565 566 566 567 568 568 567 568 570 572 571 570 569 570 571 571 572 572 573 574 574 573 573 574 574 573 574 574 573 573 574 575 576 576 576 577 577 577 578 580 584 590 603 618 635 648 662 680 699 712 723 732 740 751 765 782 796 804 808 813 818 819 812 801 794 786 763 749 749 740 722 704 689 679 667 645 633 630 623 611 606 605 604 603 602 601 602 603 604 605 604 603 603 604 605 603 603 604 605 604 603 604 605 605 605 604 605 606 605 606 607 607 607 608 609 610 612 613 612 612 615 620 621 620 619 629 632 626 619 620 619 618 617 619 620 621 621 622 621 619 618 617 617 616 617 618 618 616 617
 564 565 565 563 562 563 565 565 566 566 567 568 568 567 568 570 572 571 570 569 570 571 571 572 572 573 574 574 573 573 574 574 573 574 574 573 573 574 575 576 576 576 577 577 577 578 580 584 590 603 618 635 648 662 680 699 712 723 732 740 751 765 782 796 804 808 813 818 819 812 801 794 786 763 749 749 740 722 704 689 679 667 645 633 630 623 611 606 605 604 603 602 601 602 603 604 605 604 603 603 604 605 603 603 604 605 604 603 604 605 605 605 604 605 606 605 606 607 607 607 608 609 610 612 613 612 612 615 620 621 620 619 629 632 626 619 620 619 618 617 619 620 621 621 622 621 619 618 617 617 616 617 618 618 616 617
 565 566 566 564 562 564 566 567 566 567 568 569 569 568 568 570 571 572 571 570 571 571 571 571 571 573 574 574 573 574 576 575 574 573 574 575 575 577 578 577 576 576 576 576 575 576 581 585 594 607 623 636 649 658 678 698 710 720 730 737 744 754 770 785 790 794 796 801 803 800 792 785 779 762 748 743 734 716 696 678 665 651 632 624 621 612 606 604 605 604 603 602 602 601 601 602 602 602 602 601 602 601 602 605 606 606 604 603 603 604 605 604 605 607 609 608 606 607 607 607 607 608 609 612 612 611 612 616 615 611 608 613 622 625 624 621 619 619 620 621 622 621 620 621 621 620 619 617 617 617 616 616 617 618 618 619
 567 567 567 566 565 564 565 566 565 566 568 571 571 569 567 567 568 569 570 571 571 572 573 572 572 574 574 573 573 574 574 574 574 575 574 577 580 581 579 577 576 576 577 579 579 578 584 595 604 610 617 630 645 660 671 684 695 706 714 723 732 738 745 754 761 764 764 767 768 769 768 757 749 747 731 709 694 687 670 654 641 626 612 605 601 603 604 607 606 606 606 605 602 601 600 600 601 601 600 600 598 597 597 601 604 607 607 605 606 608 607 606 607 607 610 609 608 607 607 610 613 615 618 617 611 606 608 617 623 627 626 621 618 618 617 617 618 617 618 618 619 620 618 617 617 617 617 618 617 616 615 616 617 619 620 621
 565 565 566 567 566 566 565 565 565 566 567 567 567 566 566 567 568 569 570 570 570 571 571 571 572 573 573 573 573 574 574 574 574 575 576 578 580 580 578 577 576 576 578 579 581 582 586 596 605 607 613 630 642 656 666 677 687 696 704 713 722 727 730 735 742 742 746 749 750 751 750 746 738 733 720 700 681 666 654 643 630 616 606 598 599 602 605 606 606 605 605 605 602 600 600 600 600 600 601 600 598 596 597 600 603 606 606 605 605 607 608 608 607 607 606 607 608 607 608 612 616 621 621 619 612 605 608 614 619 624 623 621 619 617 615 616 616 617 617 617 616 616 616 616 616 617 617 618 617 616 616 616 618 618 619 619
 565 565 566 567 566 566 565 565 565 566 567 567 567 566 566 567 568 569 570 570 570 571 571 571 572 573 573 573 573 574 574 574 574 575 576 578 580 580 578 577 576 576 578 579 581 582 586 596 605 607 613 630 642 656 666 677 687 696 704 713 722 727 730 735 742 742 746 749 750 751 750 746 738 733 720 700 681 666 654 643 630 616 606 598 599 602 605 606 606 605 605 605 602 600 600 600 600 600 601 600 598 596 597 600 603 606 606 605 605 607 608 608 607 607 606 607 608 607 608 612 616 621 621 619 612 605 608 614 619 624 623 621 619 617 615 616 616 617 617 617 616 616 616 616 616 617 617 618 617 616 616 616 618 618 619 619
 565 565 565 566 567 567 566 565 566 566 567 568 568 567 568 569 571 572 572 572 571 571 570 571 573 574 573 574 574 575 575 575 575 575 577 578 579 579 578 579 580 580 579 579 578 579 582 586 590 591 594 605 620 635 648 658 666 675 681 694 697 701 701 700 703 710 714 718 724 726 729 731 716 705 697 678 653 637 631 622 612 606 601 601 602 601 601 599 600 600 601 601 599 598 599 600 600 600 600 599 597 596 597 600 601 602 603 603 603 604 606 607 607 607 606 606 606 605 606 608 610 617 622 622 616 611 612 613 614 617 617 614 615 617 618 618 615 614 614 614 613 612 613 613 614 614 615 615 617 617 616 615 615 616 617 618
 566 565 565 566 567 566 565 564 565 566 567 570 571 570 570 570 571 572 573 573 573 573 572 573 575 575 574 574 574 574 574 575 576 575 576 578 579 579 579 579 580 579 579 580 579 581 582 584 584 586 587 594 607 620 631 642 653 661 665 670 683 688 689 688 689 696 702 706 712 714 715 713 698 686 676 663 641 619 614 606 604 602 602 602 601 600 598 598 598 599 599 599 599 598 599 600 600 599 597 593 595 597 598 600 601 601 602 602 602 603 605 606 606 607 606 605 604 604 605 603 606 609 612 612 610 611 611 611 612 613 614 615 615 617 617 616 614 611 612 612 612 612 613 614 616 617 617 617 616 616 615 614 615 616 616 616
 566 565 565 566 567 566 565 564 565 566 567 570 571 570 570 570 571 572 573 573 573 573 572 573 575 575 574 574 574 574 574 575 576 575 576 578 579 579 579 579 580 579 579 580 579 581 582 584 584 586 587 594 607 620 631 642 653 661 665 670 683 688 689 688 689 696 702 706 712 714 715 713 698 686 676 663 641 619 614 606 604 602 602 602 601 600 598 598 598 599 599 599 599 598 599 600 600 599 597 593 595 597 598 600 601 601 602 602 602 603 605 606 606 607 606 605 604 604 605 603 606 609 612 612 610 611 611 611 612 613 614 615 615 617 617 616 614 611 612 612 612 612 613 614 616 617 617 617 616 616 615 614 615 616 616 616
 567 568 568 567 567 567 564 563 564 565 568 570 571 571 570 571 571 572 573 574 573 572 571 571 572 573 574 574 575 575 575 575 574 575 576 577 578 579 579 579 578 576 574 575 577 580 581 582 581 581 581 583 588 594 601 609 621 628 634 645 651 655 657 659 660 664 672 679 685 688 685 676 664 653 637 623 612 605 600 600 601 602 603 602 601 599 596 596 596 595 594 597 598 600 601 599 596 595 593 595 601 601 604 604 603 603 604 603 603 604 605 606 606 607 606 606 604 605 610 612 610 607 608 608 608 608 608 610 611 613 613 613 613 612 610 607 608 610 611 612 613 612 611 612 614 615 615 611 610 610 612 613 613 614 614 614
 567 568 568 567 567 567 564 563 564 565 568 570 571 571 570 571 571 572 573 574 573 572 571 571 572 573 574 574 575 575 575 575 574 575 576 577 578 579 579 579 578 576 574 575 577 580 581 582 581 581 581 583 588 594 601 609 621 628 634 645 651 655 657 659 660 664 672 679 685 688 685 676 664 653 637 623 612 605 600 600 601 602 603 602 601 599 596 596 596 595 594 597 598 600 601 599 596 595 593 595 601 601 604 604 603 603 604 603 603 604 605 606 606 607 606 606 604 605 610 612 610 607 608 608 608 608 608 610 611 613 613 613 613 612 610 607 608 610 611 612 613 612 611 612 614 615 615 611 610 610 612 613 613 614 614 614
 563 564 566 568 568 568 566 566 567 568 569 570 571 571 570 569 570 571 573 573 573 572 572 573 573 573 574 574 574 576 576 575 575 576 577 578 578 579 579 580 580 578 577 578 579 581 582 583 583 583 583 583 583 583 584 587 594 605 615 623 630 634 635 634 637 642 651 652 651 651 648 635 624 616 606 596 598 593 594 595 596 596 597 598 599 599 598 597 598 599 598 597 596 598 601 601 599 594 595 604 616 617 614 611 609 610 611 607 604 603 603 603 604 604 604 606 606 608 611 611 610 608 607 609 609 608 607 606 605 606 609 610 610 611 610 608 607 606 605 609 610 610 616 621 621 617 613 609 610 611 614 614 612 612 613 613
 563 565 567 569 570 569 569 569 569 568 569 570 571 572 572 572 571 571 573 574 574 574 573 572 573 573 574 574 575 575 575 575 576 578 578 578 578 578 579 579 580 580 579 579 580 581 582 584 584 584 584 584 585 585 585 588 591 599 605 612 619 624 625 625 627 628 633 638 638 631 626 618 613 606 597 593 594 592 592 593 594 594 595 595 596 597 597 598 599 599 599 599 601 600 603 601 598 593 591 602 615 617 618 612 612 611 607 604 602 602 601 601 602 603 604 605 605 606 606 607 607 608 607 608 607 607 607 606 605 607 609 609 610 610 609 608 606 605 605 608 609 610 615 619 617 614 612 611 611 613 614 613 612 612 613 614
 563 565 567 569 570 569 569 569 569 568 569 570 571 572 572 572 571 571 573 574 574 574 573 572 573 573 574 574 575 575 575 575 576 578 578 578 578 578 579 579 580 580 579 579 580 581 582 584 584 584 584 584 585 585 585 588 591 599 605 612 619 624 625 625 627 628 633 638 638 631 626 618 613 606 597 593 594 592 592 593 594 594 595 595 596 597 597 598 599 599 599 599 601 600 603 601 598 593 591 602 615 617 618 612 612 611 607 604 602 602 601 601 602 603 604 605 605 606 606 607 607 608 607 608 607 607 607 606 605 607 609 609 610 610 609 608 606 605 605 608 609 610 615 619 617 614 612 611 611 613 614 613 612 612 613 614
 566 568 568 569 569 568 567 567 567 568 570 571 570 570 571 572 573 573 572 572 573 574 573 572 574 576 576 575 574 573 574 574 575 577 579 579 578 578 578 579 579 579 580 580 581 582 584 585 586 587 587 587 587 586 587 588 588 588 591 594 600 608 613 614 612 609 607 606 600 594 595 595 596 596 593 591 590 591 593 594 593 593 594 595 595 595 594 595 596 598 599 602 605 607 603 598 595 594 595 596 597 599 605 610 612 608 603 603 602 601 601 601 603 604 604 604 604 602 602 603 608 611 611 611 609 607 605 606 606 608 608 608 608 608 608 608 609 610 611 610 610 611 613 616 615 613 614 615 615 613 613 614 614 613 612 612
 566 568 569 569 570 569 569 569 568 568 569 570 570 570 572 573 573 573 572 572 573 573 573 574 575 575 575 574 573 573 573 574 574 576 578 578 578 577 578 579 579 580 581 581 581 582 584 585 585 585 586 587 586 585 586 588 587 588 589 589 594 599 603 602 602 602 600 599 595 592 592 592 594 594 593 591 590 592 594 594 594 592 592 593 594 595 595 594 595 596 598 601 604 604 601 599 597 596 597 599 599 601 605 609 611 607 603 604 603 602 600 602 603 603 603 604 604 603 601 602 605 611 613 609 608 606 606 606 606 607 608 609 610 611 610 609 609 609 607 606 608 610 613 616 616 616 615 615 614 614 613 613 614 613 612 613
 566 568 569 569 570 569 569 569 568 568 569 570 570 570 572 573 573 573 572 572 573 573 573 574 575 575 575 574 573 573 573 574 574 576 578 578 578 577 578 579 579 580 581 581 581 582 584 585 585 585 586 587 586 585 586 588 587 588 589 589 594 599 603 602 602 602 600 599 595 592 592 592 594 594 593 591 590 592 594 594 594 592 592 593 594 595 595 594 595 596 598 601 604 604 601 599 597 596 597 599 599 601 605 609 611 607 603 604 603 602 600 602 603 603 603 604 604 603 601 602 605 611 613 609 608 606 606 606 606 607 608 609 610 611 610 609 609 609 607 606 608 610 613 616 616 616 615 615 614 614 613 613 614 613 612 613
 567 566 567 568 569 570 571 570 569 569 571 573 572 572 572 571 571 571 572 573 574 574 573 574 573 573 574 576 577 576 575 575 575 577 578 577 577 578 578 579 581 581 582 581 581 581 582 583 583 583 583 583 584 585 585 585 585 585 585 587 588 591 590 589 589 591 591 592 593 592 592 593 595 594 594 592 592 592 592 591 591 589 591 594 595 595 594 594 595 595 595 594 594 594 595 595 596 598 600 602 604 605 606 606 604 603 602 602 602 604 603 603 603 602 601 601 601 601 601 601 602 603 602 600 601 603 605 604 603 605 610 615 617 614 610 606 606 607 606 606 607 608 609 610 611 612 611 611 610 610 610 610 610 609 610 611
 567 566 567 568 569 570 571 570 569 569 571 573 572 572 572 571 571 571 572 573 574 574 573 574 573 573 574 576 577 576 575 575 575 577 578 577 577 578 578 579 581 581 582 581 581 581 582 583 583 583 583 583 584 585 585 585 585 585 585 587 588 591 590 589 589 591 591 592 593 592 592 593 595 594 594 592 592 592 592 591 591 589 591 594 595 595 594 594 595 595 595 594 594 594 595 595 596 598 600 602 604 605 606 606 604 603 602 602 602 604 603 603 603 602 601 601 601 601 601 601 602 603 602 600 601 603 605 604 603 605 610 615 617 614 610 606 606 607 606 606 607 608 609 610 611 612 611 611 610 610 610 610 610 609 610 611
 564 563 564 566 567 568 568 569 571 571 572 572 571 571 571 572 572 575 576 576 575 574 574 574 574 574 574 575 575 576 576 575 575 575 576 576 578 580 583 584 583 582 581 580 581 580 581 583 583 584 584 585 585 585 586 588 588 588 587 587 587 588 589 588 587 587 587 586 587 587 588 590 591 590 590 591 593 592 592 593 593 592 592 593 593 593 596 599 600 598 596 596 596 593 593 595 598 603 607 608 606 604 603 603 604 603 602 601 603 603 603 603 601 600 600 601 602 601 601 602 602 604 605 603 603 602 603 602 602 605 609 608 607 609 610 610 608 607 607 606 606 606 607 607 608 608 608 607 606 607 609 609 610 610 611 612
 564 563 564 566 566 567 567 571 573 574 571 570 571 572 572 573 573 576 578 576 573 572 573 574 574 574 574 574 574 575 575 575 575 575 575 576 577 580 583 583 582 580 580 580 581 581 581 583 583 584 585 586 586 586 587 589 589 587 586 586 586 587 588 587 586 586 587 586 585 586 587 589 590 589 589 591 592 592 592 593 594 594 594 595 595 597 597 600 599 597 593 596 596 595 595 599 602 606 610 610 607 604 604 605 606 604 602 602 602 602 603 603 601 600 600 602 603 603 602 602 602 602 602 602 601 602 602 602 602 603 605 606 605 607 609 609 608 608 607 606 606 607 607 608 608 608 607 607 606 607 608 608 609 610 611 612
 564 563 564 566 566 567 567 571 573 574 571 570 571 572 572 573 573 576 578 576 573 572 573 574 574 574 574 574 574 575 575 575 575 575 575 576 577 580 583 583 582 580 580 580 581 581 581 583 583 584 585 586 586 586 587 589 589 587 586 586 586 587 588 587 586 586 587 586 585 586 587 589 590 589 589 591 592 592 592 593 594 594 594 595 595 597 597 600 599 597 593 596 596 595 595 599 602 606 610 610 607 604 604 605 606 604 602 602 602 602 603 603 601 600 600 602 603 603 602 602 602 602 602 602 601 602 602 602 602 603 605 606 605 607 609 609 608 608 607 606 606 607 607 608 608 608 607 607 606 607 608 608 609 610 611 612
 566 565 567 569 569 566 566 569 570 568 567 566 569 571 572 574 574 574 574 574 574 575 576 575 573 574 575 575 575 574 574 574 575 576 576 576 576 577 578 579 579 579 580 581 582 582 583 583 584 585 586 586 587 587 586 587 586 586 586 586 586 586 586 585 585 586 588 588 587 588 588 588 589 590 591 591 591 591 591 591 592 592 593 594 596 600 598 594 592 592 593 595 596 598 603 606 606 606 604 602 600 601 603 603 604 604 603 603 601 600 598 598 600 601 602 603 603 602 601 601 601 601 601 602 602 602 602 602 602 602 603 605 605 603 604 605 606 606 605 605 607 609 608 608 607 606 606 606 605 606 607 608 608 611 614 616
 568 568 569 572 570 565 565 568 570 571 569 568 567 568 570 571 572 571 572 573 575 577 577 575 574 575 577 576 575 575 574 574 575 578 579 577 577 577 578 580 581 581 581 581 582 583 584 584 585 585 585 585 585 586 586 585 586 586 587 588 587 586 586 586 586 587 588 589 589 590 589 588 588 588 589 591 591 592 592 591 591 591 592 594 596 597 595 594 593 593 594 594 595 598 602 604 604 602 601 600 599 600 601 602 602 603 603 602 602 600 599 599 601 603 604 604 604 603 602 602 602 601 601 602 602 602 601 600 600 601 604 606 605 604 604 604 605 605 605 606 607 608 608 607 607 606 606 605 605 605 607 608 609 611 613 613
 568 568 569 572 570 565 565 568 570 571 569 568 567 568 570 571 572 571 572 573 575 577 577 575 574 575 577 576 575 575 574 574 575 578 579 577 577 577 578 580 581 581 581 581 582 583 584 584 585 585 585 585 585 586 586 585 586 586 587 588 587 586 586 586 586 587 588 589 589 590 589 588 588 588 589 591 591 592 592 591 591 591 592 594 596 597 595 594 593 593 594 594 595 598 602 604 604 602 601 600 599 600 601 602 602 603 603 602 602 600 599 599 601 603 604 604 604 603 602 602 602 601 601 602 602 602 601 600 600 601 604 606 605 604 604 604 605 605 605 606 607 608 608 607 607 606 606 605 605 605 607 608 609 611 613 613
 568 570 572 573 573 573 571 572 571 572 571 571 570 570 572 573 575 576 575 574 571 570 572 574 576 577 578 575 575 577 577 576 576 576 577 576 576 576 577 579 580 581 581 582 583 583 582 582 583 584 583 583 584 585 586 586 587 586 586 587 588 587 587 586 586 587 588 590 592 592 591 590 588 585 586 590 595 599 599 595 591 590 591 593 592 592 592 592 591 591 593 598 603 607 603 599 596 596 597 599 598 597 598 599 599 599 600 600 599 598 597 598 600 602 603 602 603 603 602 600 600 600 599 599 598 599 599 601 601 600 601 603 604 604 603 604 606 607 606 605 606 607 607 607 606 606 607 608 610 611 611 610 609 609 609 610
 567 569 571 571 572 573 573 572 570 569 572 575 576 575 576 576 578 579 581 579 577 574 574 576 576 576 575 574 574 574 575 574 573 575 575 575 575 577 580 581 580 580 581 582 583 583 581 580 581 581 580 580 582 584 585 586 585 584 585 587 587 586 587 587 587 588 589 590 591 591 590 589 587 585 586 591 597 601 601 597 590 588 590 593 594 594 592 590 588 588 591 597 603 605 604 598 596 595 595 596 597 597 598 598 598 598 599 599 598 598 598 599 599 601 603 603 602 600 598 597 598 599 600 599 599 598 599 600 600 599 599 601 603 603 602 603 604 605 604 603 604 605 605 605 605 606 607 610 611 612 611 609 608 607 607 609
